# 3D point list with one line of data per point:
#   POINT3D_ID, X, Y, Z, R, G, B, ERROR, TRACK[] as (IMAGE_ID, POINT2D_IDX)
# Number of points: 412, mean track length: 3.046770601336303
1 -0.77045388987648766 -1.4746867705377817 3.4101789262103543 123 112 122 0.1550710808898087 5 208 3 528 6 623
393 -0.33073866161935506 -0.78987935630928197 -3.0754824666527676 136 66 66 0.15714978082658929 2 3908 8 2013 4 3112 7 2857
2 -0.98666126075146965 -1.3664566345140361 3.3490359524217364 141 83 97 0.27829785232339227 5 218 3 553 2 2614 6 658
3 -0.68305443503193963 -1.2648191636860575 3.4415398812786036 85 78 90 0.30332011195880804 5 227 3 586 2 3170 6 664
387 -0.43370709005912128 -0.71269849650941064 -3.0690455255987996 212 170 102 0.2941514843815568 2 3683 8 1717 4 2561 7 2559
4 -0.92303059943493082 -1.1817151352797339 3.3986973145950929 229 173 184 0.14247659251950218 5 232 3 609 2 2656 6 698
5 -0.92288254082560506 -1.1814437750290803 3.3979925884697839 229 173 184 0.18208797060427073 5 233 3 610 6 699
397 -0.48581093740538378 -0.60899932307272575 -3.0647587647035612 229 169 164 0.13423458558601695 8 334 4 411
6 -0.67812009006751384 -1.074423721098223 3.4473220809833633 229 176 189 0.06365125552506104 5 240 3 633 2 2692 6 720
7 -0.84936729673693401 -1.0394051811767024 3.4191992582759183 222 148 162 0.21697894395664336 5 242 3 643
407 -1.6017806317013956 0.36013994680956768 -3.120704509054586 69 36 43 0.32969737117225284 2 2046 8 1311 4 669 7 2232
8 -0.84936729673693401 -1.0394051811767024 3.4191992582759183 222 148 162 0.21697894395664336 5 243 3 644
9 -0.70253914148425334 -0.98455014011459918 3.4435242067232399 223 172 192 0.11722543692358005 5 247 3 652 2 2703 6 756
401 -0.29469784560167672 -0.52677980224827625 -3.0612600477434091 147 80 76 0.11764329866964168 2 2752 8 1194 4 441 7 2128
10 -0.55369771331264828 -0.94887500514423107 3.4934719358004083 122 101 116 0.23358145461271343 5 251 3 665 2 1945
11 -0.73330563509147595 -0.83396532011529367 3.4536830047961979 188 173 183 0.51394755513423396 5 259 3 1918
12 -0.42385133041254303 -0.38888061073183211 3.6962783152289616 92 92 115 0.22963022134835268 5 328 3 1992
13 0.15912166629172325 0.0619488871637481 3.5716819044130301 182 185 208 0.15459230152522749 5 393 3 860 6 2614
405 -1.5887105538682287 0.31617956382336704 -3.1295694465537767 154 148 174 0.25795228732147696 2 2041 8 1306 4 656 7 2228
14 0.52515306782313564 0.065569836659536196 3.5739813120796007 170 175 193 0.066916772364208732 5 395 3 855
15 0.23590186658369466 0.23569696017572783 3.5717239373362353 97 105 137 0.19590194288020429 5 423 3 877 2 2285 6 1183 1 2558
415 -1.3657369319733639 0.37743054124516295 -3.0894922938228553 55 37 41 0.55834991091487207 8 1788 4 1942 7 2636
16 0.40136980229243346 0.30670846808117475 3.5691404626739902 90 69 86 0.14168028793773768 5 436 3 2071 2 2942 6 2688 1 2569
17 0.37992778151013051 0.34503489539470283 3.5701739284519114 182 156 179 0.23266060433398419 5 446 3 893 2 2947 6 1234 1 2153
409 -0.71955473596391073 2.8861571966641919 -3.1989572691895956 159 163 172 0.77138384782034564 8 1489 4 1200 7 2771
18 -2.0958308275344377 0.40655314960366185 3.3734007315156833 66 102 130 0.07180947686776068 5 459 3 981
19 -2.0063695731095232 0.44868884055801939 3.4123682350675355 100 152 176 0.50701857099734815 5 476 3 2129 2 898 6 1316
403 -0.25985647405382728 -0.42252402356143748 -3.0560745827198179 160 92 85 0.15240901813329852 8 364 4 476 7 1423
20 -2.0924694503840149 0.4665252024967787 3.3646198488737986 19 76 129 0.017081463304713884 5 479 3 2134
21 -1.725996252643456 0.5245013201056079 3.6174315223486504 72 127 178 0.14442277029628189 5 492 3 1007 2 2138
413 -2.4380677246327327 -0.28204530424825308 -3.1507911010405651 176 188 219 0.19875040053142654 8 1223 4 1832 7 2603
22 -2.0638778134986611 0.51882858636774454 3.3713186751967563 6 78 132 0.078991248043267459 5 495 3 1006
23 -2.0933036593584715 0.55981703388126425 3.3727355637382379 42 79 121 0.40774612666253685 5 507 3 2151 6 1354
487 2.8542738657190165 0.22069336271887066 -2.8147977095149721 110 106 127 0.20172493888661433 1 2101 4 3566 7 1457
24 2.6934774254165617 0.3538417238557105 1.0706270482012374 148 147 153 0.27486129386984343 5 508 3 635
25 -2.0813004881652248 0.60052513839043475 3.3807983981251861 149 163 183 0.22073158891861663 5 517 3 2157 2 949
481 4.0371523868040908 0.20546530923986175 -1.5990733470779503 43 42 47 0.25667866679650109 1 436 8 1252 7 275
26 -1.9475174458738509 0.62978334734334462 3.3991011014635268 39 85 137 0.30867863789995914 5 524 3 1028
27 -1.8997001115938932 0.64214269655205891 3.4120975860025755 13 69 128 0.31169114734699399 5 531 3 1029
411 -0.37886995523282563 -0.76136234082890497 -3.0781720926789813 208 168 113 0.22063214795742681 8 302 4 1760 7 1374
28 1.5882752958761626 0.69138445829190853 3.6903411910886423 132 67 61 0.16521852089762903 5 534 3 2097 1 1603
29 -1.8462160940840766 0.68168941971856989 3.4282024386693606 10 79 130 0.26958766568650427 5 540 3 2166
485 3.9987592982444617 0.41779582770312595 -1.6153518428450744 118 121 136 0.1900882847045664 8 1295 7 329 1 476
30 1.3518798006776884 0.70169065118086182 3.6363427524388978 211 160 166 0.35060598879935023 5 542 3 936 6 2812
31 -2.014573232821725 0.70230945252091326 3.3961465551439947 91 137 181 0.02656502768388689 5 546 3 2175
431 1.055983880431794 1.4687394472006119 -2.7953157460955591 73 49 77 0.30626916500923401 8 2084 4 2860 7 2684 1 3222
32 -1.9436188692159344 0.71768856388005609 3.4072953823686691 52 122 179 0.093977736385108035 5 551 3 1048
33 1.5835410984512399 0.75954478384604518 3.6870090412012551 120 78 82 0.2986404853524936 5 558 3 946 1 1612
425 -0.31041941445799948 -0.36993095542167903 -3.0419243676731584 52 53 47 0.33013503412260731 8 1210 4 2619 7 2140
34 1.7293369551902049 0.76871140409312011 3.6703970937576464 193 179 192 0.38251229928083008 5 561 3 940 1 1613
35 -1.9782246313296195 0.77114733459756457 3.3963295844203669 126 148 168 0.01468213012596108 5 563 3 2181
419 3.084212144648935 2.7941766235619703 -2.7038868133769181 72 66 68 2.3266043947819601 8 773 4 2370
36 1.5032292143159378 0.80438656337783987 3.677355527264818 194 164 176 0.74074580367151444 5 564 3 955 6 3670 1 1621
37 1.6134124737692397 0.80933404289319766 3.6870204605396935 93 82 100 0.032523242213471235 5 565 3 953
429 0.75847524032913582 1.2688048477253087 -2.9065260222310449 45 116 95 0.63514069611271751 1 2630 8 1400 4 2827 7 1628 1 3069
38 -1.9627278236498247 0.797037066336578 3.4092729918471827 37 75 112 0.30373704072434099 5 569 3 2185 6 1465
39 1.4504932368506558 1.0769502819737531 3.6691357632726276 206 157 103 0.71914387209577091 5 614 3 1012 6 3717 1 2258
439 -1.5119907734248308 0.41122526106713647 -3.1215413003996448 45 32 41 0.30231720676331902 8 2223 4 3202 7 3132
40 2.5774137075235628 1.7863960922743407 3.9050882544726537 149 149 154 0.35946575282547577 5 663 3 1117
41 1.3243830748281638 2.4893877170861156 4.0441107077240641 164 164 172 1.5781463286127642 5 758 3 2358 1 2447
433 2.0784876920620223 -1.0004010236820684 -2.922395500934388 112 80 160 0.59060040025861071 8 1144 4 3097 7 2061 1 2480
42 -3.0121397421298508 -2.2028769809511677 3.2169244531974779 121 125 126 0.09961147877212051 5 1031 3 1694
43 -2.9444571414884297 -2.1911062747288312 3.2532240191325941 66 68 66 0.13550594359265994 5 1036 3 1700
427 -1.6765891955798196 0.5160996837458024 -3.0825432809610431 45 42 49 0.24804718035808784 8 2051 4 2716 7 2664
44 -0.88124261086600586 -1.3258945084086904 3.397919000828276 176 77 109 0.083322996566010957 5 1057 3 1832 2 3159
45 -0.92095409885033652 -1.2793621032535116 3.3921932014706484 153 71 78 0.34825831094018467 5 1059 3 1842 2 3165 6 673
437 1.9412146979062714 -0.63170197701507469 -2.8782520270247836 183 166 182 0.1857229800224777 8 1727 4 3139 7 1370
46 -0.79322500892089409 -1.2448568107831277 3.4152098176668062 220 192 212 0.1209037175435077 5 1062 3 591
47 -0.97351239543767754 -1.1270307179745693 3.3948808080909845 214 188 205 0.10504622145058204 5 1066 3 1865 2 2670 6 719
447 2.8480777191176103 -0.093552807176963473 -2.8403827249356546 132 106 120 0.090496047584732037 8 1759 4 3532 7 1424 1 2066
48 -0.61999238587534233 -1.1349620781756868 3.4670406117539243 202 187 203 0.17813128597970759 5 1067 3 623 2 2687
49 -0.98866079212197322 -1.0872503777398508 3.3919554787148156 219 189 204 0.053666063899491925 5 1073 3 631 2 2676 6 738
441 2.0314580504644613 0.86983191343817601 -2.8047578825170043 160 94 55 0.44371254446926173 8 1814 4 3296 7 1528
50 -0.61027105226828782 -1.0841239793532678 3.4776743547294711 182 98 127 0.20625370344366165 5 1075 3 1875 2 3235
51 -0.99652224765871023 -1.048246030304081 3.3934577829315473 172 92 114 0.27921356762409633 5 1077 3 1882 2 2682 6 749
435 1.954009108113862 -0.82092762345727788 -2.9328969405637193 85 105 170 0.5009333806610784 8 1158 4 3111 7 1334 1 1372
52 -0.99511603635340617 -1.045849701744473 3.390507028935926 172 92 114 0.2683899688687611 5 1078 3 1883 6 750
53 -0.93344164490123482 -1.053143159469687 3.3993142077360559 214 189 198 0.34110271360705685 5 1079 3 1876 2 3210
445 -1.513580731237482 0.26280704574177755 -3.1405524927267283 32 38 54 0.67698225625925079 8 2349 4 3527 7 3252
54 -0.60853685295976156 -1.0383174678093958 3.4801613000108653 220 170 185 0.24825004326657496 5 1081 3 647 2 3254 6 730
55 -0.60996586802408337 -1.0377616451245208 3.4839696571405065 220 170 185 0.084498685897879011 5 1082 3 648
391 -0.46541526142474099 -0.51240912515251014 -3.0382419040013557 216 191 90 0.17623555852536127 2 3712 8 1740 4 3142 7 2574
56 -0.7776961438658414 -0.92784272022353842 3.4214408161756928 111 67 87 0.18795359749387636 5 1085 3 670
57 -0.7776961438658414 -0.92784272022353842 3.4214408161756928 111 67 87 0.18795359749387636 5 1086 3 669
385 -0.31049824925706276 -0.36809962920178269 -3.044165252565993 69 66 66 0.092739688103647092 2 3368 8 1211 7 2141
58 -0.64132648139833537 -0.91420596235139806 3.4654470230643648 107 72 89 0.29278820052203763 5 1087 3 675
59 -0.8621697252570224 -0.83385829277345769 3.4262866492053106 226 194 211 0.1980306606294012 5 1091 3 1916 2 2717
443 0.98609272764951783 1.4764791410088254 -2.8497123863534273 181 66 118 0.48321138024958243 8 2246 4 3332 1 3224 7 2687
60 0.13807080227918783 -0.58495265557565823 3.7257781438766036 177 183 199 0.30982510018806886 5 1101 3 755
61 2.7059419180336874 -0.56914904453404935 3.7139846034585795 127 152 182 0.52200782200299178 5 1102 3 712
62 2.7576024317113399 -0.56767588769920219 3.7227822783936042 128 154 181 0.48110117185002749 5 1103 3 707 1 313
63 -0.32626931153454991 -0.56104495184739478 3.752656995552285 149 150 174 0.19067015765118722 5 1104 3 1969 2 3387
463 1.9492825803152285 0.74035744207726772 -2.8419168916789679 42 35 40 0.24363230357095134 8 2228 4 3766 7 2619
64 -0.40785941780941065 -0.5112679025353658 3.7132734442375548 152 153 179 0.080994438503467284 5 1107 3 1975 2 3388
65 2.5232278777927211 -0.30902450897070544 3.6993214361840261 170 187 217 0.15514229905577165 5 1127 3 758
457 0.84754040250787399 1.4744744823719393 -2.8926028545901787 47 40 54 0.54792134905311252 1 3227 8 2247 4 3615 7 2689
66 2.4715367968263635 -0.29798646508926219 3.692126721380419 166 180 209 0.0694650357417608 5 1129 3 760
67 -0.32568082860142916 -0.21803353346924392 3.7472811907983381 108 106 130 0.33038844265535572 5 1139 3 832 2 3424
451 2.9039129134888966 0.080339301033638483 -2.8123892600739291 125 97 113 0.22422355563229016 8 1768 4 3553 1 1455 7 1442
68 0.48467153810180269 -0.08833701636704698 3.5512495355737657 167 187 219 0.22090018331130781 5 1147 3 2016 6 3479 1 2779
69 0.30779390884451424 -0.076557239346861261 3.5552842867384187 132 185 229 0.3767161326279253 5 1149 3 2020 2 3464 6 2560 1 2515
461 2.907122510291642 0.34915882187933867 -2.7950698879651736 196 188 204 0.48012308071333371 8 2043 4 3756 1 2123 7 2163
70 0.42457448548739946 -0.035862314501955539 3.5549489464480803 169 185 200 0.22206046380389635 5 1154 3 2024 2 3477 1 2522
71 3.8300323473181708 0.044449070152798059 0.62488461547359364 141 87 77 0.48091528923341365 5 1176 3 462
471 -2.5217288458861979 2.8851933713342515 -3.184022535850668 78 85 96 1.2751375918045504 8 2559 4 3928 7 3440
72 0.44769763398539364 0.1459270019470334 3.5777174316077476 155 177 207 0.22818001790127512 5 1187 3 2047
73 0.31318646290455943 0.17010686046750331 3.5646867562883702 159 129 146 0.11738751582718218 5 1191 3 2742
465 0.68683060272852725 1.2425045792597496 -2.9141939109286867 1 82 157 0.29904011320436069 8 2360 4 3781 7 2675
74 0.33504391633337433 0.29098723815472965 3.5701817599185852 160 168 197 0.41922702416038443 5 1204 3 2069 6 1205 2 2304 1 2567
75 0.33720649674829428 0.44950390299852572 3.575745521122343 172 176 205 0.00013061606655383645 5 1218 3 2089
459 1.6742927004114336 -0.89705274544013136 -2.9208150357101808 215 211 220 0.74477082934384498 8 2009 4 3711 7 2852
76 3.8443479077871339 0.2616525645686883 0.39419091473059503 58 31 48 0.088165848530827359 5 1229 3 477
77 -1.8182724966359329 0.5401659679997689 3.4459727052026281 104 143 168 0.51846571359592974 5 1234 3 2142 2 968 6 1347
469 1.0116596628489312 1.5580813293207416 -2.8111220471587446 13 63 150 0.050824047692850038 8 2448 4 3921
78 -1.8926469281942535 0.5477785252527716 3.4146049876893558 137 159 183 0.34594773445984733 5 1236 3 2799 6 1350
79 -1.9267354583713929 0.57034132327680309 3.421923684585451 19 99 174 0.11949062980695883 5 1241 3 2801 2 961
479 4.0276459174555423 0.024722959287968159 -1.6216139394714062 131 120 114 0.15224607074900642 1 392 7 230 8 394
80 1.6057863007843098 0.72906958559488377 3.6855331382204364 168 184 210 0.272335977176481 5 1254 3 2100 1 2212
81 -1.9849060580930356 0.72008566766427295 3.4171854171575324 18 87 142 0.23813822909779603 5 1257 3 2818
473 2.1529907016637169 0.67579909287045081 -2.8217549860444926 165 91 52 0.48746911216721223 8 2498 4 4040 7 3341 1 3380
82 -2.0582001049480567 0.78837189613200687 3.3815998896983048 6 71 134 0.21172585614680342 5 1263 3 2829 2 2154
83 1.3394352208816844 0.8211755683873081 3.6663599702184624 166 157 193 0.61814128672535351 5 1264 3 2112 6 4217 1 1624
467 2.8821814429020582 0.15395624114588691 -2.8181486802453053 188 185 202 0.35165100410926503 8 2214 4 3897 1 2544
84 1.7711504849336264 0.89478440943745263 3.6382905013230138 99 100 118 0.18942102864454455 5 1272 3 2110 1 2615
85 1.6418035258532429 0.91675304516224099 3.6537098790640696 152 81 56 0.29593607033995489 5 1277 3 970
477 -0.28957652893563113 -0.48714047676948397 -3.0568650428721682 225 160 96 0.19877900832301096 2 748 8 348 7 190
86 1.5840628002892319 1.0290950069460838 3.6601057990218782 170 99 97 0.33496163403293799 5 1285 3 2137 1 2248
87 1.5014215572793717 1.0785816951207667 3.6676993712165 166 70 54 0.23645569853333925 5 1291 3 2147
88 0.80629204069878946 0.26467649610712923 -1.5373528266507384 145 149 153 0.54229752171115764 5 1313 3 32
89 -0.80703170135727065 -1.4323536057437734 3.4138511101140758 208 207 226 0.24071017500441172 5 1506 3 2597
90 -0.86987907639686624 -1.4163059460729113 3.3927010917123726 180 115 130 0.17502813278549828 5 1507 3 1810 2 3144 6 642
91 -0.81655124839633697 -1.3800405572314745 3.408361037099457 96 76 87 0.36893806662781309 5 1508 3 1818 6 2350
475 -0.49105262864978411 -0.54882378225736139 -3.0388106100806396 184 122 83 0.086023975218469856 2 2737 4 433
92 -0.81730547385003505 -1.3767302037234947 3.406689584772296 96 76 87 0.091954127057638349 5 1509 3 1819
93 -0.86027011784297347 -1.3695782832488406 3.3962790610389573 216 198 214 0.21443160792448263 5 1510 3 1822 2 3154 6 2354
94 -0.85938434590622559 -1.3678692157038523 3.3938417868184776 216 198 214 0.23179469503721614 5 1511 3 1823 6 2353
95 -0.75033433463991994 -1.3329092116283472 3.4137311677603623 147 76 92 0.085463562862337417 5 1512 3 2608 2 3632
495 2.7229643408159703 0.064479046466636283 1.033331473070549 34 33 47 1.2616245748858066 3 2594 8 2186 7 2194
96 -0.83792113735999574 -1.3254899766831894 3.4050821160126672 216 195 206 0.17474150533405985 5 1515 3 2610 2 3161 6 2360
97 -0.97793928267180374 -1.2694639485569121 3.3733914247239469 199 84 115 0.14424761060226274 5 1516 3 1844 2 3163 6 2370
489 2.8476154736896739 0.27084811895654393 -2.8096682324994835 192 188 201 0.15758601199224179 1 2109 4 3248 7 1468
98 -0.97793928267180374 -1.2694639485569121 3.3733914247239469 199 84 115 0.14424761060226274 5 1517 3 1843 2 3164 6 2369
99 -0.96386839137106939 -1.1695221824670812 3.3908912145202263 106 74 87 0.10888931704689545 5 1519 3 1860 2 3175 6 2381
483 4.0388883311763797 0.25864016900312675 -1.5320476051252592 57 59 59 0.30510158889312694 1 1520 8 1766 7 293
100 -0.96376286915012588 -1.1693380057050249 3.3912811125032398 106 74 87 0.12133182594867213 5 1520 3 1859 6 2380
101 -1.0213358709495806 -1.1121150738996051 3.3812252351481398 101 85 86 0.14816340473302747 5 1523 3 2627 2 3180 6 2390
493 0.98215726490623612 1.334783035912986 -2.8627613273750323 13 98 189 0.57210979019715547 4 2837 8 1837 7 1634
102 -1.0204242062085089 -1.1105414240028084 3.3786138748644321 101 85 86 0.12496492110224093 5 1524 3 2626 6 2391
103 -0.66695710372574046 -1.1220321536860298 3.4501600981615783 150 82 97 0.17850714358865391 5 1525 3 1866 2 3669 6 3341
104 -0.80352683674540448 -1.0200746271621961 3.4163707174687747 164 69 84 0.1525007601847137 5 1527 3 1887 2 3234
105 -0.7309516200125532 -1.004846237414968 3.433168557929029 127 72 82 0.14655949619287822 5 1528 3 1889 2 3253 6 2400
497 3.6219237469106305 2.947866869541532 -2.1306399430273459 150 153 158 0.48537792008688979 1 2946 8 2127 7 2328
106 -0.59104481102832074 -0.99686241177656243 3.487406598900153 170 93 105 0.18210396314018001 5 1529 3 1890 2 3676 6 2397
107 -0.77107273439345669 -0.98058326624413084 3.429272452651309 201 187 205 0.27418555694872004 5 1530 3 2640 2 3257 6 3365
491 2.7130331352727421 0.084587821323326554 1.0672809590849173 190 192 207 1.3061261628762935 3 1811 8 2189 7 1506 1 1484
108 -0.81560351400533804 -0.84797327963639335 3.4276941458246815 210 194 213 0.12925502948048589 5 1532 3 1909 2 3303 6 2443
109 3.2586551495780083 -0.35905358149172473 0.74496604475045081 128 96 82 0.38910747876990548 5 1537 3 410
501 1.9464738271677562 0.82438713279734743 -2.8207788040522912 157 90 33 0.24522706653430901 1 3049 8 2355 7 2902
110 3.758180700942618 -0.37417037907614414 2.6522004714679825 48 52 66 0.068012454745420142 5 1544 3 2630
111 2.4886092815828382 -0.42202180985709509 3.6844459003680705 182 191 220 0.04091621761015829 5 1548 3 744
112 -0.16426257774302333 -0.30220162447000454 3.7956062725946675 104 102 127 0.10438881404418481 5 1552 3 2715 2 3748 6 3466
113 0.17378956708637416 -0.015915585662431647 3.5664750736596811 157 145 176 0.15317681160725435 5 1562 3 2029 6 3491
114 0.42103641893375382 0.018057085567791398 3.557985360969675 151 87 124 0.27150375287009509 5 1567 3 2725 2 3787 6 3493 1 2785
115 0.42103641893375382 0.018057085567791398 3.557985360969675 151 87 124 0.27150375287009509 5 1568 3 2724 2 3788 6 3492 1 2784
499 2.0839929752078654 -0.80913220509635631 -2.9205651918508795 123 88 146 0.25717295162147608 1 2995 8 2197 7 2854
116 0.45897494189623955 0.057991805830594816 3.5564496870341284 170 173 210 0.93188578385809551 5 1573 3 2036 2 3488 6 3497 1 2798
117 0.43056119731402237 0.10308737123766971 3.56065483902771 13 53 108 0.13495156361209873 5 1577 3 2732 2 3793 6 3502 1 2799
118 0.52373936102792606 0.1105722237256128 3.5619673838751624 125 82 119 0.21326085794424537 5 1580 3 2040 2 3802 6 4115
119 0.57492383154980009 0.13178881735585243 3.5393708308754483 170 173 188 0.058687221784656921 5 1584 3 2733
455 2.8910877742994479 0.40122534217294564 -2.7856841990493928 143 109 129 0.28562765463109818 8 1787 4 3580 7 1485
120 0.50123073453014544 0.15296669342554262 3.5634944886288902 166 181 219 0.13119608793390358 5 1591 3 2048 6 3508 1 2551
121 3.8168568601154509 0.10615963924102075 0.63696911033835923 58 42 54 0.1603863239095403 5 1592 3 473
449 2.9065492987226422 0.023290463910838017 -2.8270165074250717 192 191 207 0.24392001110229972 8 1765 4 3547 1 2077 7 1436
122 0.53529969506335229 0.19896297978085548 3.5683207297203454 67 114 168 0.26851912555531704 5 1594 3 2743 2 3973 6 4122 1 2809
123 3.8442352078649376 0.10784787801111537 0.53139986650889703 106 129 179 0.15200115639429196 5 1597 3 465
124 0.32497663800685272 0.24049177394666468 3.5673743276498051 90 136 186 0.25321693759159214 5 1600 3 2058 2 3797 6 3532 1 2810
125 0.32497663800685272 0.24049177394666468 3.5673743276498051 90 136 186 0.25321693759159214 5 1601 3 2059 2 3798 6 3533 1 2811
453 3.0842545347771013 0.30962297511333181 -2.7674227436893455 186 181 188 0.35407899666415465 8 1778 4 3574 7 1476
126 0.5036919951186376 0.23938461001203515 3.56647836616958 165 169 204 0.027911781241979475 5 1602 3 2054
127 3.8508657760532481 0.12624591813862995 0.44944972535080308 38 54 77 0.01359541327573378 5 1605 3 457
128 3.848685999082945 0.17604518451084739 0.54971961008615833 82 130 174 0.054736688867635871 5 1611 3 483
314 2.0313440221516457 -0.8285191411163878 -2.927870568388272 120 109 175 0.24176436054018 1 234 8 292 4 1751
129 0.24471124524414989 0.40473541002252927 3.5877018702641381 167 177 189 0.2248347050139185 5 1617 3 2770
130 3.8260390371489139 0.22323056690298199 0.64139091318797492 12 62 138 0.12539758509655186 5 1618 3 504
260 -0.65793963467508265 -1.0497932862965407 3.4612267872864524 136 54 58 0.19283558260253023 5 1080 2 3238 6 2392
131 0.39085465041429929 0.43853021317236451 3.5792349498614828 154 169 197 0.23243721779827944 5 1621 3 2087 6 3566 1 2833
132 -1.8604126350214505 0.51652969549122341 3.4358694116091684 2 67 137 0.35500870705914639 5 1626 3 3171 2 2103 6 2765
133 1.5637205147472273 0.57261937565163734 3.693182693881774 49 70 126 0.18954036333407573 5 1634 3 2767 1 2600
134 3.8403611832802187 0.28884497776553081 0.40604940139720502 145 127 127 0.082240946782372565 5 1638 3 1765
312 3.9291076589046257 -0.90443897336868551 -0.69274627438639225 190 175 182 0.86238273426722289 3 3298 1 2503 7 2068 8 1989
135 -1.9202884456337534 0.61424616505133856 3.4083504021627005 127 163 189 0.39944268115890597 5 1641 3 2811 6 2789
136 1.5464784366024211 0.67010391366013033 3.6889783909208225 198 148 75 0.096826378727779008 5 1643 3 2096 1 2206
258 -0.83730441107865816 -1.326003735928116 3.404234087233069 203 193 194 0.16288808053822848 5 1514 2 3160 6 2359
137 1.4788808633718875 0.76994107497208397 3.6901858777314755 120 51 70 0.31546551274096929 5 1649 3 2784 1 2216
138 1.2131452923707529 0.79697113846720957 3.6321029646078298 182 168 173 0.32653988035974235 5 1652 3 2788 6 4576
268 -0.74265867364388882 -1.1220424921030243 3.425661270583555 85 45 46 0.13935544031946656 5 1803 2 3665 6 3342
139 1.4227606702796232 0.93053751388179973 3.676054098182028 99 84 98 0.81058349108611316 5 1659 3 2127 6 4588 1 2234
140 1.3531452395358794 0.93445106621568486 3.6629811977431666 154 78 60 0.45738799923409817 5 1661 3 2131 6 4587
262 -0.43714392754436759 -0.58476055642348523 3.7001593139425677 82 80 91 0.18559363203354851 5 285 2 3372 6 897
141 1.519613837436314 1.1161805685807962 3.6443789779597413 197 194 203 0.134743758707393 5 1664 3 2803
142 -0.75224225105900799 -1.405690300042322 3.4089263438759154 110 88 99 0.42735968107379446 5 1795 3 2602 2 3625
256 0.31378711085044358 0.12262835514524484 3.5604403520813475 168 169 180 0.19779941921289654 3 863 2 2922 1 2545
143 -1.0216645311945352 -1.2876933320343633 3.3535221205856494 193 191 210 0.12089904472388835 5 1797 3 3059 2 3630 6 3335
144 -0.96211015724227855 -1.2252600273462568 3.3841586530831687 198 195 212 0.062909051397016358 5 1798 3 2617 2 3645 6 3339
266 -1.0151829673720545 -1.1649312688562818 3.3759168410409326 195 194 200 0.064878697145303532 3 2619 2 3652 6 3343
145 -0.96211015724227855 -1.2252600273462568 3.3841586530831687 198 195 212 0.062909051397016358 5 1799 3 2616 6 3340 2 3646
146 -0.74314151314779631 -1.1211190362338623 3.4264188106883573 104 52 69 0.12164116848924188 5 1802 3 2625 2 3666
276 -3.2471162470670101 1.2142343318922659 0.25648322655507633 219 180 197 0.18472680487816318 2 893 6 1342 4 2054
147 -0.84204746824752719 -1.0939219353269305 3.4152952199377244 194 91 110 0.17196539867534849 5 1806 3 2629
148 -0.89373562968241282 -1.0250335497272154 3.4107274472555797 146 57 77 0.20886821124966468 5 1808 3 3085 2 3673 6 3361
270 -0.13335726434082651 -0.51173887675166851 3.7901560882674481 172 167 173 0.33318616158391656 5 1822 2 3942 6 4067 3 3109
149 -0.61551316594477667 -0.94779463036935951 3.4858111925975832 216 182 205 0.72047337093782948 5 1810 3 1898 2 3907 6 4022
150 -0.9310316185843277 -0.92383887868174253 3.4112966636243498 166 71 77 0.25818225063343719 5 1811 3 3089 2 3675
264 0.4970405345380664 0.034750995581244851 3.5575766129742945 170 112 123 0.33762077588698863 3 2032 2 3492 1 2535
151 -0.84381502736201464 -0.88572996356128619 3.4220211470297994 169 77 82 0.095820034388854045 5 1812 3 2654 6 2430
152 2.8137080481848327 -0.33388894616885073 3.7328312220321442 124 154 182 0.42056999009849289 5 1832 3 2691 1 2781
274 0.52567529857029061 0.28144771058066864 3.5709631275868867 132 135 155 0.24456069997719868 2 2953 6 1192 1 1526
153 3.0348351866766792 -0.075434158087251874 0.77035465583899276 215 216 221 0.80092056855164695 5 1844 3 1742
154 0.20371247180097485 -0.068250815513030846 3.5547628045202733 160 183 219 0.83536854285332851 5 1848 3 2721 2 3458 6 3484
284 1.3655646156259191 0.68746197126948061 3.6638976334921161 178 169 184 0.81087644343614473 5 535 6 2808 1 575
155 0.20287666425165507 0.063355529669540875 3.5659951991572445 59 62 97 0.10145764583272104 5 1857 3 3139 2 3966 6 4114
156 0.20252148504206224 0.062416797100009185 3.5661231591825455 59 62 97 0.0081495345817642478 5 1858 3 3140
278 -3.2478044234332462 1.2141909427711699 0.29131853916241857 82 59 75 0.19038468710505232 2 894 6 1346 4 2057
157 0.40201228329934791 0.16587769344565481 3.5653833975163396 167 183 209 0.58964970995241939 5 1861 3 3401 6 4756 1 3290
158 3.8515144305749018 0.09950368482685118 0.44302204026755082 119 113 161 0.56117399703073478 5 1863 3 448
272 -1.7435216599662224 0.44850712920762414 3.6152607052234984 18 82 126 0.28554858444003378 5 2400 2 4097 6 4770
159 0.55264223543119428 0.29765469020786683 3.5758003745184506 129 145 172 0.20082020891283653 5 1872 3 3145 6 4538 1 3029
160 3.8406082455726249 0.17035177345592645 0.35778433489823364 25 49 105 0.16822215610389341 5 1876 3 1737
161 3.8406082455726249 0.17035177345592645 0.35778433489823364 25 49 105 0.16822215610389341 5 1877 3 1736
162 -1.6791278868689394 0.44919110002730095 3.6692341639257178 183 182 198 0.5436462658927993 5 1880 3 3418 6 3593 2 3413
292 -2.4835275229145233 2.550386094799201 3.7966444389611387 170 169 175 0.94095880537470888 5 2189 6 3815
163 3.8354678168054428 0.26154375585518097 0.57869343784954874 115 125 133 0.14020802251317846 5 1883 3 1781
164 3.8448199759403638 0.25440371836323511 0.42212309904116985 162 143 135 0.076463465745505027 5 1885 3 1760
165 3.8448199759403638 0.25440371836323511 0.42212309904116985 162 143 135 0.076463465745505027 5 1886 3 1761
166 1.4253585917713816 0.52777079441629959 3.6659133462510201 143 74 29 0.090382944021145273 5 1890 3 2763
167 3.8249984543281283 0.28634111408954349 0.62424665798676005 156 110 156 0.026867790548010598 5 1891 3 1788
168 3.8249984543281283 0.28634111408954349 0.62424665798676005 156 110 156 0.026867790548010598 5 1892 3 1787
290 -3.2081276301475854 1.3181061467145336 0.40489349998914115 117 74 104 0.36397170494579217 2 2094 6 3629 4 2792
169 3.8437510799625771 0.28061032475536773 0.44004158250088043 66 57 89 0.2501794226905294 5 1894 3 1766
170 3.8201306261302359 0.33914417399053209 0.62706867316206361 86 110 159 0.064567895085065802 5 1898 3 1798
300 3.8992238355323661 -0.6913418722202439 -0.81404697485625555 179 186 205 0.41632816299755981 3 2961 1 286 8 1692 7 1358
171 1.6114472047388124 0.66374285780786313 3.6900533382019596 163 81 62 0.16354806377311196 5 1901 3 3153
172 -1.8859117401899661 0.65538544045417058 3.4247157124904386 6 70 138 0.41686055546892664 5 1904 3 3427 2 2855 6 3627
294 -3.2359185242321784 1.3146048767681267 0.12045774906099271 110 61 91 0.080549691153304612 2 2827 6 4174 4 3588
173 -2.6415897935554051 -1.4147590597314137 3.2449024802236113 20 20 22 0.28225389703439463 5 2046 3 3537
174 -2.7051293839281949 -1.3643586790283091 3.2729791694865962 139 137 141 1.6618398357649657 5 2047 3 3351
288 -3.2390913285643093 1.3501185063118633 0.1862696992870459 203 185 209 0.25615596740060603 2 2095 6 3623 4 3286
175 -0.95616771834778647 -1.3635745456269108 3.3697684958631795 181 70 77 0.26258666087119914 5 2049 3 3349 2 4042 6 4462
176 -1.0766600325908136 -1.2983293443461819 3.3199490884018554 171 69 83 0.18517873022056175 5 2050 3 3352 2 4044
298 3.913017602282479 -0.7338511641911587 -0.74916673910514919 137 105 115 0.32698224292444561 3 2455 1 281 8 1125 7 108
177 -0.73544046371496286 -1.2644581843654052 3.4196398224216007 205 193 215 0.40702576080607744 5 2052 3 3062 6 3997 2 4054
178 -1.0513257245091285 -1.2186538943067846 3.3556076448930141 148 73 78 0.23108634793443339 5 2053 3 3354 2 4046 6 4003
308 3.917699639028497 -0.76207384898100294 -0.53905679239270421 81 100 130 0.26484115450390755 3 2965 1 2036 7 2082 8 1676
179 -0.69872679146673045 -1.1782802981692599 3.442135439161508 197 192 218 0.0015455119948260265 5 2054 3 3070
180 -0.82990802251394791 -1.1596318506283163 3.4128280750858364 198 184 202 0.20238431323470329 5 2056 3 3073
302 3.8963513617252858 -0.86391647490409329 -0.82039008841018757 186 183 203 0.67245020091834107 3 2953 1 1390 8 1998
181 -2.7964677705572978 -1.153146260999192 3.50252031066975 167 162 168 0.6094459374849629 5 2057 3 3544
182 -0.73886706595290708 -0.95162508663503009 3.4366088330469218 198 185 208 0.20907101683987095 5 2060 3 3366 2 3904 6 4023
296 -0.40210507148661478 -0.24975027265637945 3.7054966918935324 109 106 127 0.34182546465614938 3 3395 5 2252 6 4521
183 -0.6726444182101966 -0.92162134826681019 3.4610078331634466 133 70 78 0.22321686893293233 5 2061 3 3368 6 4025 2 4069
184 2.8775496472474416 -0.64179344916342407 3.7015337547147258 54 83 106 0.31238391929825116 5 2067 3 2665 1 2510
306 3.9256178350690969 -0.76852069496139652 -0.71243847248720127 189 185 201 0.52836978952950286 3 3300 1 2032 8 2180 7 2547
185 -0.40890493105984099 -0.56562425734712307 3.6935767085918192 114 118 140 0.41847663296419918 5 2069 3 3383 6 4062
186 2.8112851013551903 -0.47632605422145752 3.7237618137442294 125 153 186 0.46023295261976888 5 2070 3 2685 1 2778
187 3.7126133124213845 -0.41168929187268427 2.9569289762554267 28 45 63 0.31029283893377829 5 2071 3 3086 1 2783
188 2.6805369574076199 -0.40005733784653885 3.7115351036129725 77 104 131 0.36890573900736096 5 2075 3 3106
310 0.37707046792124155 0.27228738087859888 3.5670983205454831 176 155 176 0.16056902551649613 2 2306 6 1191 1 2134
189 -0.11452359599633789 -0.33149741308071384 3.798983331077185 156 153 180 1.0072323636779295 5 2077 3 3391 2 3949 6 4509
190 0.43436000552320686 -0.19155896259337588 3.5534032400679649 183 195 202 0.7573596711907209 5 2087 3 3119 1 3161
304 3.9233986115385409 -0.90691087354373379 -0.58711508834278237 166 179 200 0.58453878196059539 3 3301 1 2026 8 1663 7 2071
191 0.52153110840601558 -0.13535794120632419 3.5573618680794241 5 99 182 0.23245413507011767 5 2092 3 3122 6 4513 1 3162
192 0.412379535658918 -0.061442406312286035 3.5788211444112705 149 177 208 0.11670767393680119 5 2093 3 3396
193 3.8088873076391172 0.063826202480508742 0.67437868444859494 44 36 57 0.13047589312651611 5 2105 3 1754
194 3.830045291617556 0.30761540643633589 0.59044184717893711 33 36 87 0.12195193401299401 5 2125 3 2583
195 3.830045291617556 0.30761540643633589 0.59044184717893711 33 36 87 0.12195193401299401 5 2126 3 2582
196 3.8574856769083876 0.31982546268628448 0.39541681185900834 59 42 52 0.82361350651329046 5 2129 3 2568 1 1538
382 -0.43984818987978941 -0.81348169986193841 -3.0768600091041325 200 206 218 0.26336840746973 2 3277 8 1712 4 1748 7 2093
197 3.8359366225509604 0.33731148208399586 0.41639416995875433 156 126 135 0.11291111866532784 5 2131 3 2575
198 1.2674696510715941 0.77934883592578608 3.6403526072811863 37 55 111 0.29727422392843877 5 2135 3 3159 6 4926
376 -0.47465566584129637 -0.7481214100845982 -3.0711495118395811 170 123 129 0.13909279717259729 2 2712 8 307 4 356 7 1382
199 1.6838664830994692 0.77474537317740411 3.6799974464267562 61 69 122 0.19673529281409743 5 2136 3 3157 1 2855
200 3.2682211393139742 0.42400111000692353 0.51072425766798568 133 133 135 0.54240870339777358 5 2137 3 2603
201 1.5907710297006632 0.97609124236059042 3.6667331942839216 152 78 84 0.39929145744748257 5 2139 3 3417 1 3204
202 1.5711451672604468 1.0802323423834792 3.6512282681494717 202 198 221 0.20379994821941419 5 2142 3 3177 1 3070
203 0.74789908876843525 2.4914353693322955 4.0116798581920925 167 166 172 0.089708039332807049 5 2182 3 3491
204 -0.88213749028989807 -1.2359944349943237 3.4001668047051288 194 83 92 0.21645028371387229 5 2239 3 3355 6 4468
205 -0.9512984013349004 -0.99000691155555121 3.4102710900611219 167 80 89 0.37669949626611904 5 2242 3 3365 2 4064 6 4480
206 2.8736473475118678 -0.5395180331543753 3.708308920755055 56 91 119 0.29106897105925467 5 2246 3 3096 1 2777
207 2.8617505674898185 -0.4017963619797813 3.7093536046747766 59 93 116 0.85192976860572178 5 2248 3 3378 1 3008
208 0.35225985578201591 -0.12128827028435026 3.5615511575461758 2 93 182 0.10330003970308073 5 2256 3 3394
330 3.8866383050783044 -0.83161224452687399 -0.8460856301181986 158 114 105 0.29672940683990806 3 2437 8 1681 7 87
209 3.8501473480450619 0.10690675475355887 0.49245200481331503 27 36 99 0.2630178193428 5 2270 3 3015
210 0.46706564760768088 0.28188225335349587 3.5706588228508211 169 170 198 0.31940713142181909 5 2272 3 3404 6 4908 2 4195 1 3296
211 3.2119675770548604 0.15574063863463586 0.50630036953283653 27 25 40 0.62088497507880203 5 2273 3 2559
212 3.8432032036831036 0.1480687021210792 0.40424321508667327 109 141 166 0.22771800985799026 5 2275 3 3012
213 3.8425888942022883 0.2909807752057153 0.50709396011635921 37 42 88 0.020111936116483643 5 2279 3 3040
214 0.45973027560672636 0.73903789513263218 3.7778885274732015 172 172 180 1.2562900236576628 5 2282 3 3165
215 1.5033020171852745 0.73445048958374226 3.6883653000849477 133 49 47 0.20321026089902461 5 2283 3 3575 1 3194
216 1.6740330672588177 0.99846709927019317 3.6305926234986567 197 204 226 0.30243771363161237 5 2289 3 3579
217 0.62673526812949998 2.0215050663727192 3.9042036712255341 167 167 175 1.4167940539217811 5 2307 3 3255
218 3.3025174357374194 -0.36071180372213846 0.7638136027549508 139 93 75 0.071022722095009538 5 2373 3 3324
219 -0.22829294762508762 -0.25503876658835833 3.7825394748264354 107 108 129 0.44046649750192951 5 2383 3 3672 2 4246
220 0.27751064950376769 -0.01632976080783697 3.5654346189251305 165 176 198 0.31600646246272801 5 2388 3 3568
221 0.24717216733862113 0.34356709590654283 3.5965590449120994 174 171 201 0.83600600578863415 5 2394 3 3679 6 4909
222 -2.0579754121827456 0.45429359189504215 3.3782447789178272 5 96 175 0.34754983123559446 5 2404 3 3689 6 4550
223 -2.0579754121827456 0.45429359189504215 3.3782447789178272 5 96 175 0.34754983123559446 5 2405 3 3688 6 4551
224 2.5486209780873104 1.7035460033546506 3.9232339368366138 153 152 158 1.1816323596503469 5 2421 3 3703
282 -3.2491101951498025 1.1640313231008239 0.25615053714364083 200 168 187 0.30568303079763021 2 2066 6 2751 4 2767
225 -2.1417090408244412 0.58385558766248991 3.3518388758805573 185 184 190 0.55931539986130718 5 2481 3 3767
226 1.2441523045576768 0.69977683548186853 3.6166541837587793 165 87 74 0.72766522982730808 5 2483 3 3681
227 1.2441523045576768 0.69977683548186853 3.6166541837587793 165 87 74 0.72766522982730808 5 2484 3 3680
228 -2.0573585430885659 0.73947120434212044 3.3724129164650902 21 91 160 0.025182265634123117 5 2485 3 3769
286 0.5809721473047077 0.19028150863417342 3.5745457412746013 171 180 191 0.37131596358116775 2 3806 5 1593 6 3515
229 1.4603424914305525 1.0079958702314145 3.6859219281760089 44 65 108 0.18805053220649079 5 2493 3 3691
230 3.1789999992707849 1.219370750009874 0.72307191706760365 133 129 130 1.0205881267065433 5 2504 3 3392
280 0.38624817931255623 -0.084629099582579276 3.5585164462716579 128 166 205 0.11994094855131077 3 827 6 2557 1 2518
231 1.4138285499253116 2.4215436413322964 3.9961413258763843 166 166 174 0.32264756267232475 5 2506 3 3825
232 1.6975394947102271 2.4150786855221247 3.9639956554145481 161 160 166 2.4011628951440711 5 2507 3 3783
233 3.1848805878369753 -0.02665995490170419 0.66401369694251366 219 219 229 1.9415264838418367 5 2527 3 3650
234 -2.0256397233842836 0.49557391385428112 3.3894860640930577 2 75 145 0.74548447612576441 5 2532 3 3851 6 4916
364 2.0519139123631893 0.82040543142147881 -2.8193023295933628 123 54 23 0.26422796976153989 1 2193 8 1809 7 1519
235 3.2706081478539963 0.47413727117280158 0.50907582885397729 167 167 169 0.27583167345423848 5 2535 3 3539
236 1.310638907437701 0.48085603537643284 3.7110083412208419 182 185 193 1.1670575077507683 5 2578 3 3757
237 0.21715072494657389 1.2060445545325988 3.6289524542856357 12 11 16 1.0921269656750026 5 2580 3 3854 6 5185
238 -0.06905330300210287 -0.074209678540391885 3.8192779190368658 188 192 201 0.80670907976031259 5 2604 3 3880
239 2.7600993509937068 -0.45003429080431062 3.6820791083679989 120 149 181 0.048023335438879391 5 2624 3 3840
240 -1.8878201589968582 0.61717277204948173 3.5055329703600409 3 78 147 0.50752751619361769 5 2643 3 3939
241 1.4354588784175222 0.72525037528937808 3.6482909756910296 156 95 113 1.1325018234106157 5 2644 3 3906
242 2.1544868941259168 -0.5611124233101441 4.0997309862087956 187 191 202 1.7741817799916988 5 2653 3 3918
372 1.941412995333907 0.75556647002163047 -2.840097353251624 50 48 43 0.50973955866686382 1 3532 8 2632 4 4174 7 3519
243 0.84225319266072385 0.8753502101894064 3.7515082976153167 175 178 185 1.4538296390613366 5 2656 3 3934
244 0.84225319266072385 0.8753502101894064 3.7515082976153167 175 178 185 1.4538296390613366 5 2657 3 3935
366 2.1087053850315343 0.70687161205091953 -2.8253371486326673 61 49 37 0.21374362442179098 1 2832 8 2056 4 3590 7 2192
245 2.1783941906522619 2.2287616485550128 4.1312818774743949 161 160 166 2.1032979326523322 5 2660 3 3931
246 0.10775193148976929 1.3172517322897088 3.614158772904553 162 161 159 1.7432463235644235 3 1107 2 1443
247 -1.7760203197494095 0.50658112625211127 3.5286177694983407 15 74 130 0.43020709863422518 5 488 2 2119 6 1336
248 0.23333713388960475 0.23648163783335049 3.5747849267562248 92 90 99 0.086587836610958993 5 424 2 2286 6 1184
370 1.7738477731648112 0.7890191737020068 -2.8311163440946165 195 139 62 0.26644337079155289 1 3046 8 2232 4 3769 7 2624
249 -1.0339292036412868 -1.0678040492823304 3.3811355969516832 192 182 192 0.23393974249850369 5 239 2 2679 6 745
250 -0.90054811837399007 -1.102282361672156 3.4098147002294135 197 188 189 0.12287676653986102 5 1526 2 2680 6 726
380 -0.35013954159453048 -0.37157727654535838 -3.0381813933624242 191 172 180 0.12166942685017272 2 2769 8 370 4 491 7 219
251 -0.90594495314132062 -0.84256018397106225 3.4197877055547514 182 76 88 0.18689721916935506 5 1090 2 2714 6 2445
252 -0.707898050918363 -0.88041761457365519 3.4406691083966754 145 62 72 0.30983012245864655 5 1089 2 2718 6 790
374 -0.39461246669104183 -0.83270044172210511 -3.0808068015314767 56 68 66 0.21783111837705824 2 2704 8 1159 4 1742 7 2087
253 -0.42402296195118699 -0.27822901928527671 3.7024073482789239 78 75 86 0.1831901386572167 5 343 2 2834 6 2547
254 -2.0150641262577507 0.61540045989712788 3.4051574341993671 2 67 134 0.53367143618766932 3 3424 2 2837 6 3611
368 2.0238369246491463 0.69826540263905823 -2.8356908067332078 174 103 59 0.66048931673830524 1 2831 8 2227 4 3763 7 2614
255 0.38044169076328671 0.034643333409588251 3.5604098393341999 162 150 175 0.18648819688885809 5 388 2 2917 6 2590 1 2078 1 2528
257 0.42073242285459006 0.27945782909686773 3.5682449777494165 156 157 171 0.25901115823837928 3 880 2 2941 6 1195 5 431 1 2137
259 -0.68137472297596524 -1.2647392596110913 3.4403647084873219 107 65 80 0.32602282496330676 5 228 2 3171 6 665
261 -0.873637671195721 -0.93736046932532935 3.4191092087927428 201 187 197 0.22434951427068847 3 2643 2 3265 6 3375
263 0.31498227403013046 0.17071343965738878 3.5619978938013159 161 104 114 0.19303138603743383 3 2741 5 1190 2 3489 6 3514 1 2806
265 0.3420114672805839 0.36383999640660919 3.5768557818793036 140 150 166 0.48091899618923373 3 2078 2 3502 6 3554
267 -0.82823832362932504 -1.1591836017239925 3.4118188307200934 189 193 204 0.33627994064847749 5 2055 2 3657 6 4004
269 -0.17082981763734667 -0.40562272339208122 3.7896301548445996 85 81 94 0.39280678807591896 5 1115 2 3738 6 3446 3 2705
271 0.55267586201509633 0.29937152940956779 3.5757830453028419 119 117 126 0.056239375150793199 5 1873 2 3976 6 4537
273 0.33764435335619664 -0.055297872600031092 3.5534788498840055 100 145 180 0.15743907088126188 2 2245 6 1023 1 2062
275 0.36020788891041844 0.3084421882041305 3.5703070685246425 129 76 99 0.39311053622556558 2 2937 3 889 6 1218 1 2141
277 -3.2471162470670101 1.2142343318922659 0.25648322655507633 219 180 197 0.18472680487816318 2 892 6 1343 4 2053
279 -3.2369473603669587 1.2121605634729837 0.34361215053294197 97 68 92 0.10275996898699978 2 897 6 1349 4 2059
281 0.27306345739774024 0.24390017320480506 3.5679771015760666 161 181 199 0.73716274323353681 5 420 6 2663 1 2560 3 878
283 -1.7914847075678932 0.49618763481596895 3.4883334396867278 11 72 122 0.58927562017320767 2 3411 5 1624 6 2759
285 -3.2288310941883558 1.4780068690869255 0.24334685944770423 192 178 202 0.21151985379798099 2 2124 6 2831 4 2813
287 0.46583196015987971 0.18618849984769825 3.5646770340675222 124 143 158 0.47592646745943873 3 2052 6 3518 1 2554
289 -3.2390913285643093 1.3501185063118633 0.1862696992870459 203 185 209 0.25615596740060603 2 2096 6 3624 4 3285
291 1.4788539499062927 0.8918657485063789 3.678579822275553 120 65 52 0.52339618396582344 3 971 6 3687 1 1650
293 -1.1983097512565655 0.044777894450948659 3.5605004907735771 184 184 192 0.35149035738195356 3 2752 6 4120
295 1.5087032273669803 0.91565815539898021 3.6748409891673268 163 175 204 0.65924161521734526 5 1276 6 4235 1 2233 3 978
297 3.8883701084933278 -0.77721654095183035 -0.84125803397670484 152 104 120 0.4641747301304926 3 1422 1 277 8 1686 7 1342
299 3.8992238355323661 -0.6913418722202439 -0.81404697485625555 179 186 205 0.41632816299755981 3 2960 1 285 8 1693 7 1359
301 3.9648773625793678 0.95724847140271996 -0.60310069491558571 176 186 202 0.85152681077138248 3 3340 1 569 7 449 8 2065
303 3.9024065354425921 -0.75430915584046276 -0.78689349969646338 169 166 123 0.32826252676612844 3 2452 1 1395 8 2002 7 1349
305 3.9166112295366124 -0.8863366720471445 -0.50462593502874475 159 166 182 0.38439784461651111 3 3495 1 2027 7 2073
307 3.9207981167721115 -0.76123108425799224 -0.53846700780042134 81 100 130 0.19323936348089829 3 2964 1 2035 7 2083
309 3.9198506072564081 -0.7502128899780055 -0.62149218152918395 146 137 149 0.30286109311938963 3 3302 1 2037 7 1353
311 1.5639975345571344 0.84115232430333597 3.6861891005433756 160 90 80 0.15649512012196087 3 961 5 1267 1 2223
313 2.0844193845505115 -1.0467884250545114 -2.9260256266168576 163 160 203 0.26254925278397828 1 195 8 274 4 1690
319 2.1133270064863292 -0.96594713589084535 -2.9224062413488436 190 134 191 0.49421664447405983 1 2003 8 1147 7 1326
363 1.6650152092165016 0.63494113796391294 -2.8468487170708894 161 105 78 0.32186563417182179 1 1552 8 1340 4 2769 7 392
365 2.1595940599249412 0.94076618086610075 -2.7873987875059507 96 46 29 0.37510844109891284 1 2202 8 1815 4 3303 7 1531
367 1.8521034405054353 0.84321663399855118 -2.8252997159653712 86 46 44 0.26317437758480594 1 2839 8 2062 4 3594 7 2213
369 2.1355999794568041 0.78339553036260601 -2.8107934625750972 205 141 72 0.19478057910134297 1 2837 8 2231 4 3773 7 2621
371 1.9801534039944377 0.92285088106214475 -2.8095550409789127 13 73 107 0.32316589519230293 1 3053 8 2236 4 3779 7 2630
373 -0.29999580772099216 -0.61770598988001868 -3.0642888078262698 228 164 172 0.1740696159831184 2 1982 8 332 4 407
375 -0.44679422392949514 -0.77184854994895646 -3.0784518611593712 167 120 109 0.24413021532659404 2 2708 8 1167 7 1373
379 -0.45320543356126347 -0.33726165208436937 -2.995591025209158 153 104 109 0.44195013161674357 2 2767 8 375 4 1837
381 -0.34274618060854217 -0.84584785794262518 -3.0791150341777929 209 196 191 0.41536379251845934 2 3272 8 1710 4 1738 7 2551
383 -0.49870705311500563 -0.70935418994308475 -3.0643468055608758 147 103 114 0.17154835086414741 2 3298 8 1174 4 2562
384 -0.5839320626073532 -0.60621503422981615 -3.0243566921402745 213 198 193 0.10270887759813936 2 3318 8 1182 4 1781
386 -0.55267204493359778 -0.70771876881678253 -3.0563881637697192 215 210 216 0.13082449640884367 2 3680 8 1718 7 2560
390 -0.34999002066151946 -0.59660220396342245 -3.0654743342528303 160 89 98 0.33048973138213272 2 3708 8 1733 7 2569
392 -0.36179377043513855 -0.34682445175922172 -3.0294013493916707 214 198 184 0.25533479181796193 2 3720 8 1748 4 3158 7 2581
394 -0.31707993652998884 -0.68341277553238522 -3.0735789860318095 159 101 118 0.26590445928748219 2 3912 8 2017 4 3123
396 -0.3758441949157274 -0.57853100657825629 -3.1350547535717808 235 168 170 1.0262874234091333 2 1983 7 1408
398 -2.5807780520882386 -0.54300368404923283 -3.2420166724347244 167 173 197 0.24576249484285073 2 535 8 1195 4 419
399 -0.50797907727353175 -0.57633478153281659 -3.0316480164055597 225 188 132 0.062565443029219292 2 2731 4 424
402 -2.4504834745325188 -0.38431244555329652 -3.2068779272220707 181 187 211 0.19335164629614265 2 592 8 1212 4 458
404 -1.503233960102174 0.17440613736285993 -3.1332613366999507 51 54 70 0.21461291115822068 8 1286 4 616 7 2625
406 -1.5882237332502667 0.31712013503301206 -3.1305274572720774 154 148 174 0.18048047570002787 2 2040 4 657 7 2229
408 -3.2331753393747693 1.342183789816876 0.30280369015874475 192 154 167 0.22925692265299005 2 940 6 1428 4 891
410 1.9999715174294095 -0.99337133744992812 -2.9253686920039113 179 163 217 0.24966941319186778 8 275 4 1703 7 68
412 -0.47007580561375245 -0.43432814573265527 -3.0158379994339235 163 106 111 0.21699916633842012 8 355 4 1813 7 1427
414 -1.5699448717971767 0.38848358303766273 -3.1222899815340224 165 120 125 0.35296896570579989 2 2054 8 1317 4 1939 7 2234
416 -1.6225483804017895 0.47890596354399206 -3.1156346350729707 156 70 76 0.48413451177089267 2 2801 8 1794 4 1955
417 2.245290757348362 0.63414649611672913 -2.8017208306583479 82 60 53 0.27999237822790857 8 1337 4 2069 7 374
418 2.2667356854422245 0.66074509238982926 -2.7873754715820787 189 175 175 0.42028280554032849 8 535 4 2079 7 375
420 -0.66256719538427289 -0.58525336094657132 -2.9749534623051348 208 208 211 0.18139300637957856 2 3690 4 2584
421 -0.58989863281552601 -0.55505043406541177 -3.0096984757320078 75 65 65 0.037574833480027305 2 3702 4 2589
422 -0.58838490623066819 -0.55523289917945784 -3.0082561407147672 75 65 65 0.073568226613524038 2 3701 4 2590 7 2865
423 -0.41197477235116076 -0.53259960460819344 -3.0500100378929527 165 96 101 0.64369286362183931 2 3354 8 1737 4 2596 7 2572
424 -0.56121515849923931 -0.50903318232602757 -3.0045005725239267 211 194 188 0.10492984195398536 2 3709 8 1738 4 2598
426 -1.6639165970136587 0.18639493513745312 -3.1341690320946225 45 46 59 0.5441332753097684 8 2038 4 2672 7 3130
